0.808384,-1.56196,7.56226
1.59271,0.464136,5.77455
0.877619,0.415672,5.98436
0.491374,-0.135316,6.61508
2.24307,0.381713,6.15674
2.31716,0.536091,6.50343
2.61695,0.457433,5.93499
2.5632,0.394594,5.70267
1.78928,-0.117994,6.63413
1.69865,-0.54456,7.32972
3.50071,0.4444,5.64466
3.40756,0.478164,5.21494
3.12266,0.549094,5.60322
3.22999,0.624151,6.07736
3.43669,0.52196,4.46919
3.34691,0.566324,4.76134
3.54353,0.453382,4.74646
2.88548,0.42209,5.48733
2.74457,0.468631,5.40571
3.55736,0.448232,4.98242
2.00758,0.230338,6.08536
1.92005,0.105959,6.83877
3.08266,0.557651,5.01858
2.76456,0.665419,6.23636
2.16521,0.3766,5.77964
-0.985179,0.55244,6.03202
-1.91514,-0.341974,6.22661
-1.3549,-1.09648,7.20418
-0.734785,-0.297057,6.74732
-0.533148,0.15401,6.33449
-0.415994,-1.16342,7.20923
-0.509162,-0.58612,6.78082
-0.331361,0.240835,6.18327
-0.0419376,0.522051,5.73874
-0.37865,0.634106,5.81684
0.144458,0.606533,4.81632
-0.0571009,0.775631,5.14244
0.285132,0.430858,5.53254
-0.571512,-1.69024,7.64619
-0.22143,-2.1249,7.60039
-0.0887523,-1.76565,7.38168
-1.03683,-3.23227,4.16715
-0.580157,-4.0003,4.24831
-1.71218,-3.95032,5.91587
-1.24054,-3.67554,5.22931
-1.37056,-3.68153,5.14245
-2.59429,-1.43463,3.69984
-2.94744,-2.53701,3.6351
-2.91833,-2.85125,4.3186
-2.70105,-1.59468,4.38773
-2.00004,-0.75832,3.65358
-2.64466,-1.82752,3.1897
-2.4988,-3.61131,4.66074
-2.65014,-3.41529,4.80535
-2.80098,-3.32117,4.30545
-2.27301,-3.88348,5.45805
-2.6343,-3.34483,5.41102
-0.794378,-2.42435,7.91507
-0.803395,-3.39164,7.50731
0.100181,-3.45933,7.49562
0.0158091,-2.73378,7.80716
-1.5482,-5.0195,3.55369
-2.94255,-5.5086,1.94217
0.392375,-3.08421,7.5965
0.168929,-2.65863,7.6094
-0.570587,-0.433545,6.81359
-0.275853,-0.62019,7.0416
-0.18073,-0.167907,6.73027
-0.485274,-0.0554947,6.54693
-1.80086,-3.93447,5.33571
-1.91641,-4.07838,6.23471
-0.937692,-4.2558,4.74243
-2.29156,-4.30799,4.40964
0.05015,-0.716021,7.10095
0.134603,-0.181257,6.76472
-0.581741,-0.126754,6.50872
-0.419745,-0.89925,7.06487
0.244431,0.269711,6.20676
-0.197515,0.156598,6.3428
0.994854,-3.55054,7.63543
0.976663,-3.785,7.0514
1.78885,-4.58509,6.14457
1.94766,-4.34417,7.14897
-1.86416,-2.13504,7.32545
-0.603363,0.522564,4.01483
-0.76499,0.808674,4.9534
-1.61185,-0.0879522,3.76124
-1.86397,0.0205215,4.83652
2.23893,-3.84137,7.76932
2.46918,-3.17504,8.09861
2.21993,-2.59224,8.26252
2.49773,-4.75994,6.33566
2.68375,-4.28681,7.17757
-1.23138,-3.91722,5.23079
-0.263661,-4.34039,5.10404
0.32768,-4.11298,6.37653
0.409725,-3.46509,7.39124
0.784044,-3.89807,6.83454
0.508219,-2.37158,7.74244
0.596295,0.462938,5.56214
2.39139,0.521041,5.36507
0.262694,-3.7675,7.03804
1.13929,-4.51641,5.78429
-1.89315,-3.33932,6.80506
-2.62529,-1.96354,5.78806
-1.23668,-0.380358,3.39892
-1.4101,-0.86325,3.27988
-3.08939,-2.56562,2.61396
-3.1906,-3.44264,3.23573
-2.99114,-4.55777,3.25192
-3.2821,-4.21345,2.72564
-0.746797,-1.47278,2.38681
-0.962575,-1.30059,3.4113
-0.341122,-2.18439,3.0002
0.107071,-3.2055,2.49668
-0.894287,-1.70171,3.53675
-1.32534,-3.28913,4.05436
-2.8537,-3.81365,3.84354
2.89595,-4.75998,6.39448
2.79827,-5.08368,5.13514
3.56858,0.701978,-5.9223
2.64713,0.129941,-6.04336
2.6097,0.195354,-5.04142
3.50451,0.765904,-4.90684
1.7953,-0.394528,-5.58799
0.315069,-2.24842,-4.07231
0.326273,-3.29706,-3.72869
0.18861,-2.9077,-3.27067
0.888357,-4.38515,-3.91417
1.65733,-4.88615,-4.09628
0.665897,-1.42742,-3.91973
1.21196,-0.825055,-4.74199
2.42855,0.0037161,-3.10948
3.14789,0.390473,-3.53769
2.19736,-0.0305645,-4.1657
1.63943,-0.394907,-3.57392
1.90446,-0.0553224,-2.79721
2.2406,0.229665,-2.2248
3.02759,0.318065,-2.26147
4.45848,0.781403,-4.63878
4.24933,0.826792,-4.93622
3.99891,0.809013,-4.40119
-0.102387,-3.26672,-2.39334
-0.223374,-2.39993,-2.51452
0.14223,-2.04696,-3.22883
0.297748,-1.3829,-3.17207
0.869117,-0.918362,-3.61381
-0.36544,-2.04412,-1.86318
-0.100023,-1.621,-2.50311
3.57426,0.679927,-1.10459
2.53924,0.639777,-1.28591
3.38119,0.923086,-0.46446
3.99121,0.857016,-0.179543
1.70212,0.251325,-1.81042
1.4002,-0.0778932,-2.5147
0.820002,-0.225045,-2.09187
0.248933,-0.990037,-2.56406
0.636264,-0.879753,-3.16048
1.20955,-0.473238,-3.09567
-0.480814,-3.30021,-1.28269
-0.154234,-3.83695,-1.48579
3.41958,1.25099,1.86319
2.47511,1.12354,2.67212
3.43027,0.952625,2.82916
-0.742513,-4.40989,2.89344
0.077951,-5.17925,2.18326
0.687279,-5.10999,4.08663
-0.828264,-1.60076,3.00277
-0.716609,-1.40767,2.22182
-0.697117,-1.53173,1.72849
-0.954953,-1.75755,3.25679
-0.970804,-1.56483,3.46224
-0.884972,-1.56351,3.37675
-0.70831,-3.92068,1.19308
-0.32998,-4.60583,1.41171
-1.17098,-3.68479,2.8632
-0.984553,-1.51072,3.48718
-0.916042,-1.47534,3.31527
-0.804227,-1.49754,3.12265
-1.05043,-1.33598,3.25966
-0.82372,-1.04188,2.45792
-0.737038,-1.35997,2.52934
-0.61224,-1.08253,1.45399
-0.850828,-0.366901,2.8303
-1.08709,-0.927393,3.33891
-1.10092,-1.37541,3.62956
-0.448747,0.354045,2.38864
-0.651313,-0.399185,1.69923
-1.0156,-2.22089,2.71217
-0.803833,-2.2288,1.42265
-0.86754,-3.14462,0.971247
-1.11275,-2.91165,2.31332
-1.1644,-2.54484,3.19459
-0.180007,-1.19793,-1.49931
-0.590153,-2.71836,-0.951035
-0.533961,-1.85701,-0.319691
0.249435,-0.743119,-2.20237
0.737706,-0.51073,-2.69596
0.260679,-0.45504,-1.55429
3.70422,1.30129,0.432732
3.87903,1.01449,0.774113
2.85345,1.03851,-0.811409
-0.478266,-0.738235,0.564032
-0.504459,-0.102662,0.852304
1.30914,2.20908,0.482458
1.04059,2.10292,0.699142
1.3124,2.09771,1.03676
1.58095,2.20386,0.820076
-0.313595,-0.643005,-0.0881939
-0.143553,-0.120908,-0.283827
0.389229,0.0895974,-0.855154
3.13322,1.72204,-0.292202
3.18115,1.81144,0.877043
1.93676,1.00875,-1.07144
1.06297,0.350573,-1.06593
-0.129896,0.893386,0.380236
0.562214,0.87968,-0.759903
1.52643,2.07579,0.0132809
2.41665,2.15317,0.176479
1.71895,1.82159,-0.503805
0.726843,1.6491,-0.164871
0.681746,1.68553,0.502724
0.210047,1.15263,1.29373
0.209679,0.845226,2.29607
1.31623,1.29316,2.15234
1.19215,1.63832,1.39691
2.21057,2.05882,0.857758
2.50432,1.59358,1.72524
1.01969,2.02849,0.275537
1.80003,2.24632,0.4419
0.99547,1.87292,0.972355
1.70169,2.01243,1.17755
1.13139,0.944394,2.85312
0.200787,-0.261767,-1.30636
0.723594,0.0535856,-1.64754
-0.0461776,-0.457256,-0.781233
-0.450722,-1.12377,0.0738697
1.15553,0.343283,-1.40223
1.87656,-4.98751,-3.72339
1.42687,-5.01361,-2.11338
0.310361,-4.41984,-1.59922
0.769888,-4.33534,-3.13455
-0.664431,-3.32401,-0.173618
-0.418992,-3.98797,0.025692
-0.0511549,-4.5788,0.283474
0.398819,-4.95895,1.47896
0.827524,-5.42422,2.66274
1.45924,-4.9733,4.42158
2.35024,-5.40346,2.40213
3.10163,-5.47755,-1.05492
1.79825,-5.24793,3.89767
2.16044,-5.03673,5.35649
2.27139,-5.34288,-1.40817
3.79414,-5.49996,-4.25077
0.747838,-5.04929,0.618816
2.39479,-5.28384,4.23327
4.1166,0.923827,0.386292
3.90301,1.00104,1.92686
3.70077,0.770611,3.66239
3.65738,0.590094,4.25261
4.4782,0.420515,-8.15731
4.24397,0.760582,-6.77972
4.06467,0.758203,-3.87711
3.84872,0.491866,-2.73524
4.39006,0.889743,-5.45525
4.69997,0.707592,-4.75244
4.58096,0.72695,-4.53463
3.80534,-5.62258,-5.79581
2.84537,-3.84955,7.75312
-1.86167,-1.06048,-4.46388
-1.80055,-0.373488,-4.77872
-2.04304,-0.885015,-4.00812
-1.98549,-1.59472,-3.64581
-1.8906,-1.60689,-4.91858
-1.84989,-0.641156,-5.30938
-1.70634,-1.46695,-4.49912
-1.60375,-2.6001,-4.00393
-2.58213,-0.825435,-3.79549
-2.57031,-1.48805,-3.2257
-2.0289,-0.281145,-4.40209
-2.27126,-4.24633,-3.95125
-2.9054,-4.68357,-3.68475
-2.90425,-2.83076,-4.69526
-2.39725,-2.48104,-4.93463
-1.76622,-0.454451,-5.09176
-1.78007,-1.97915,-3.75985
-1.8954,-2.60297,-4.51217
-2.09441,-1.71832,-5.01698
-2.05902,-0.761493,-5.45901
-2.29227,-0.964313,-5.58358
-2.06553,-2.9114,-4.55011
-3.25877,-2.54448,-4.64097
-2.8806,-1.17242,-5.59055
-3.27271,-1.29184,-3.55834
-3.046,-0.381859,-4.51305
-3.54385,-1.95016,-4.12052
-4.00038,-2.98716,-2.86968
-3.82758,-3.89661,-3.54428
-3.21779,-0.959604,-5.09461
-2.58784,-0.21938,-4.27489
-3.35919,-1.90103,-2.74327
-1.13995,-5.22359,-2.04199
-1.02613,-5.50474,-1.25699
-1.27502,-6.2538,-1.39143
-1.23764,-5.82065,-2.22909
-3.07765,-3.83261,-2.1155
-2.63218,-3.84239,-2.14485
-2.15008,-4.18395,-2.19433
-2.42147,-3.83592,-2.35797
-2.00937,-3.92013,-2.11695
-3.08239,-3.54451,-1.74111
-0.982632,-4.3242,-3.08825
-1.09039,-4.81006,-2.54388
-1.32332,-5.40313,-2.92333
-1.75755,-4.43475,-1.98101
-1.43661,-3.53644,-3.94795
-1.22747,-3.42154,-2.97871
-4.21629,-5.87454,-0.533609
-4.3851,-5.38077,-0.519053
-4.64099,-5.39622,-1.05235
-4.45048,-5.95746,-1.36334
-4.11322,-3.26517,-1.74894
-4.43142,-4.5761,-2.54401
-4.58182,-4.59253,-1.45052
-1.69109,-4.44685,-2.20922
-1.43567,-4.50509,-1.82575
-1.26604,-4.63736,-1.98893
-1.02283,-4.97551,-1.31931
-1.72915,-3.52948,-2.22833
-1.37044,-4.13581,-2.34462
-1.53805,-2.84712,-2.75737
-1.88439,-2.44887,-2.69969
-2.54516,-2.66512,-2.73458
-1.68076,-4.14056,-3.94359
-1.94042,-5.7152,-2.82035
-1.45247,-6.28613,-0.91308
-1.71852,-6.47785,-1.6185
-1.40538,-4.7891,-2.43752
-1.21271,-5.91909,-0.74049
-3.56379,-3.81605,-1.73418
-3.92776,-4.2961,-1.01886
-3.52271,-3.92992,-1.39204
-3.15164,-6.18306,-2.75856
-2.48699,-6.65333,-1.82112
-2.98239,-6.74235,-1.17703
-3.65065,-6.4642,-1.78596
-2.23533,-6.66408,-0.881302
-3.54273,-6.5897,-0.797148
-2.14988,-6.44465,-1.90624
-2.53601,-5.78799,-3.03038
-3.9208,-6.24881,-0.653133
-4.02788,-6.18919,-1.73175
-3.62669,-5.4842,-3.11005
-4.36182,-4.72296,-0.835533
-4.10978,-4.93415,-0.406588
-4.19806,-4.03927,-1.13108
-3.18304,-2.24622,-2.16875
-3.78924,-3.17751,-1.28454
-4.30219,-5.8774,-2.34531
-3.20198,-3.07353,-1.93118
-4.17481,-5.21613,-2.76441
-3.75834,2.69401,-4.36711
-3.82267,2.4665,-4.43752
-3.43772,2.04707,-4.46854
-3.47975,2.47208,-4.34939
-3.96217,2.64974,-4.46343
-3.914,2.44252,-4.52254
-2.93219,1.97915,-4.48659
-2.78386,2.06972,-4.57909
-3.01003,2.48289,-4.60059
-3.2385,2.46413,-4.40549
-1.82532,0.0465953,-5.24392
-1.79113,0.318841,-5.1337
-1.75761,0.0682756,-4.80529
-2.04578,-0.226979,-5.65903
-2.0045,0.18467,-5.62988
-1.83445,0.0543538,-5.44302
-2.4327,0.607027,-4.62593
-2.18103,0.606979,-4.63556
-2.34326,0.78095,-4.7153
-2.47247,0.76911,-4.7424
-1.93742,0.598288,-5.46842
-1.9162,0.731076,-5.65849
-1.80764,0.922734,-5.43652
-1.88455,0.616518,-5.28695
-2.17819,0.166532,-4.51009
-1.91118,0.387907,-4.69323
-1.89354,0.368523,-5.42519
-2.40115,-0.267224,-5.94875
-2.19606,-0.314023,-5.71334
-2.58812,-0.638863,-5.93892
-2.15659,-0.0315064,-5.75433
-1.82841,0.492391,-4.9626
-2.01682,0.619464,-4.82126
-1.87186,0.605171,-5.03819
-1.97727,0.784413,-4.82813
-2.13175,1.03285,-4.67
-1.72992,1.22912,-5.00775
-1.83471,1.48198,-4.66185
-3.78696,0.601057,-6.37477
-4.30969,0.946724,-6.02302
-4.46215,1.44306,-6.18957
-3.95586,1.22168,-6.47489
-3.27188,0.491249,-6.54936
-3.41437,1.05937,-6.52723
-2.87586,0.914429,-6.39707
-2.80547,0.425847,-6.50858
-2.47034,-0.12375,-5.97192
-2.67273,-0.23863,-6.13383
-2.43919,-0.0684324,-6.0545
-2.2659,0.0517748,-5.85245
-2.49902,1.10267,-6.00735
-2.46091,0.774992,-6.19503
-2.91472,1.33549,-6.09776
-2.13237,0.114697,-5.76043
-2.0426,0.313717,-5.6597
-2.04555,0.418549,-5.70939
-2.20824,0.547537,-5.94139
-2.10751,0.90933,-5.89466
-1.94411,0.528182,-5.44466
-1.91916,0.456825,-5.35694
-2.19838,0.0986476,-5.78261
-2.14073,0.166185,-5.77822
-3.10437,0.0383683,-4.95494
-2.7243,0.187868,-4.56875
-2.96868,0.242042,-4.74707
-3.25524,-0.182102,-5.20173
-3.40674,-0.365127,-5.48822
-3.19115,-0.679138,-5.64312
-3.87341,0.820503,-5.4547
-4.15313,0.881126,-5.77005
-3.65812,0.208833,-6.03059
-3.54107,0.115671,-5.6419
-3.27796,0.212104,-5.14089
-3.40159,-0.000939846,-5.33844
-3.3861,-0.361331,-5.78577
-2.43447,0.0534387,-6.11326
-2.67261,-0.102445,-6.22449
-4.76215,1.53155,-5.68284
-4.59064,1.41236,-5.67623
-4.65476,1.63585,-5.51888
-3.11328,2.85266,-4.73123
-3.16232,3.01556,-4.9886
-3.37226,3.08578,-4.73798
-3.40104,2.89298,-4.48392
-3.34587,2.93043,-5.3357
-3.47642,2.85696,-5.49218
-3.68445,2.97711,-5.33467
-3.55363,3.04116,-5.33735
-3.96381,2.96159,-5.05664
-3.91909,2.89049,-5.03952
-4.10124,2.7691,-4.73356
-4.52341,2.39494,-5.09684
-4.42745,2.10912,-5.04551
-4.38876,2.3315,-5.11384
-4.39743,2.61061,-5.23465
-4.20555,2.72172,-5.46204
-4.04005,2.72813,-5.63817
-4.28841,2.79313,-5.41963
-3.97079,2.56943,-5.79525
-4.04019,2.53617,-5.85014
-4.02683,2.6979,-5.75881
-4.71102,2.21941,-5.71209
-4.60298,2.42856,-5.88695
-4.29966,2.44156,-6.0011
-4.49642,2.33774,-5.88276
-4.32288,2.40358,-5.99679
-4.52509,2.36985,-5.77639
-4.63278,2.21616,-5.69282
-4.22792,2.22962,-6.26619
-4.27658,2.36948,-6.12957
-4.19268,2.3185,-6.147
-4.25489,2.05354,-6.35422
-4.33796,2.16159,-6.3321
-4.79639,1.68209,-5.96798
-4.65207,1.9132,-6.22523
-4.37817,1.81735,-6.34106
-4.48557,2.69752,-4.972
-4.37111,2.52857,-4.89237
-4.18922,2.63291,-4.71054
-4.31398,2.78259,-4.80572
-4.45736,2.42294,-5.0119
-4.32432,2.35887,-4.80453
-3.73085,2.98454,-5.35372
-3.93804,2.99896,-5.03531
-4.10074,2.77561,-4.73096
-3.7706,2.97359,-5.46276
-3.70927,2.85213,-5.55967
-3.80954,2.81918,-5.56659
-4.30514,2.74019,-5.43412
-4.0172,2.74678,-5.61749
-4.41133,2.59663,-5.23487
-2.61838,1.67029,-4.5559
-2.3598,1.63356,-4.4187
-2.52219,2.04308,-4.45633
-2.28121,2.09708,-4.26154
-2.54512,2.29473,-4.48764
-2.75856,2.3667,-4.68458
-2.10482,2.21205,-4.30258
-1.98673,1.9067,-4.31828
-1.86003,2.08128,-4.42252
-3.28796,0.640468,-5.06043
-3.59339,1.25373,-4.90183
-4.05578,1.71873,-4.936
-3.81517,1.21622,-5.1033
-3.37573,1.45727,-4.70616
-3.79701,1.94308,-4.65304
-3.5329,1.36902,-4.7998
-2.86902,0.476707,-4.71723
-3.11048,0.366433,-4.95015
-3.90998,1.78005,-4.7788
-4.3534,2.14035,-4.97188
-4.0071,2.33204,-4.6157
-4.15733,2.28386,-4.66081
-4.03286,2.08001,-4.66977
-4.03269,2.5028,-4.57623
-4.04875,2.69329,-4.59122
-3.6148,2.83011,-4.38207
-4.06448,2.89889,-4.63677
-3.92745,2.84892,-4.46458
-4.5563,1.91081,-5.16663
-4.73931,2.04957,-5.31551
-4.66933,1.88932,-5.43096
-4.4092,1.65362,-5.26916
-4.85549,2.38791,-5.49123
-4.81158,2.13677,-5.50736
-4.72145,2.28699,-5.25733
-4.64029,1.98163,-5.58628
-4.63458,1.95845,-5.54449
-4.78696,1.79528,-5.64739
-4.91831,1.95504,-5.89679
-4.13079,3.06075,-4.70644
-4.14513,3.00075,-4.83978
-3.32146,3.16739,-4.9804
-3.4735,3.21613,-4.73984
-3.46705,3.13273,-5.23829
-3.79487,3.06117,-5.26521
-3.67306,3.15454,-5.29359
-4.05348,3.11736,-5.07615
-4.03635,3.18557,-5.04233
-4.18741,3.01662,-4.844
-3.81969,3.09833,-5.27683
-3.89129,2.95679,-5.54806
-3.92929,2.81918,-5.62404
-4.15334,2.8613,-5.61476
-4.05743,2.98405,-5.63847
-4.63574,2.92165,-5.23008
-4.51124,3.05438,-5.49592
-4.98143,2.68863,-5.54411
-4.98083,2.61585,-5.74056
-4.14861,2.86954,-5.61801
-4.13822,2.68103,-5.89009
-4.14467,2.83085,-5.78742
-4.42419,2.57279,-6.03072
-4.81989,2.75288,-5.96162
-4.55918,2.43956,-5.80336
-4.73389,2.31738,-5.65782
-4.33389,2.30442,-6.25057
-4.3406,2.43822,-6.12737
-4.49097,2.08788,-6.34904
-4.73228,2.05982,-6.24665
-2.10476,1.60449,-4.40294
-1.71319,1.87527,-4.57712
-2.26397,1.32724,-4.56978
-1.89646,0.527832,-5.20161
-2.37766,0.983873,-4.78862
-2.24692,1.1939,-4.69553
-2.49857,0.401931,-4.53137
-3.88853,1.06326,-5.28961
-4.3218,1.7393,-5.11097
-3.40643,0.474396,-5.24591
-2.754,0.677855,-4.76087
-2.87813,1.58227,-4.53903
-2.47906,1.31534,-4.62123
-2.83434,1.01467,-4.74654
-2.55837,0.906329,-4.72161
-2.38719,1.14226,-4.73036
-4.22405,2.17159,-4.71109
-4.18506,1.99634,-4.80743
-4.33335,2.18441,-4.82357
-1.77532,2.34768,-4.799
-1.84192,2.38337,-5.09085
-1.91967,2.52684,-5.04409
-2.42103,2.53338,-5.31927
-2.59582,2.51831,-5.16901
-2.36555,2.61695,-5.24819
-2.34318,2.28842,-4.32854
-2.57947,2.39291,-4.52947
-2.71166,2.42052,-4.76762
-1.96559,2.3124,-4.45658
-2.17148,2.36127,-4.3672
-2.15724,2.68715,-5.21385
-2.55711,2.61559,-5.12096
-2.39873,2.73643,-5.19829
-2.62192,2.60999,-4.5778
-2.728,2.51855,-4.78188
-2.39554,2.46871,-4.39175
-2.24609,2.63434,-4.39346
-2.0446,2.49992,-4.48049
-2.92709,2.65658,-4.94388
-3.64523,2.7507,-5.61755
-3.84315,2.61371,-5.744
-3.8445,2.75014,-5.63782
-3.48256,2.60422,-5.58937
-1.77336,1.8284,-5.33681
-2.07576,2.24328,-5.54116
-1.65886,2.07371,-4.86456
-2.74243,2.42746,-5.08105
-2.7011,2.35768,-5.36186
-2.89777,2.17667,-5.48399
-2.94371,2.41342,-5.1687
-2.44282,2.3596,-5.49277
-1.98096,1.46463,-5.76424
-3.57074,2.35082,-5.74512
-3.21302,2.51216,-5.41476
-3.32982,2.22593,-5.65201
-3.89618,2.32396,-5.98998
-4.05058,2.34658,-6.02668
-4.1303,2.42731,-5.97448
-3.19152,1.77966,-5.91255
-3.56436,1.59632,-6.25933
-3.62026,2.04097,-5.96881
-3.99984,2.00781,-6.23822
-4.03053,1.67804,-6.37513
-2.57925,0.254719,-6.34985
-2.79175,0.0608944,-6.3868
-2.9659,-0.204508,-6.1431
-3.186,0.028377,-6.27831
-2.65838,-0.320361,-6.11497
-3.01749,-0.355223,-6.0529
-3.04204,-0.565923,-5.91935
-2.33959,1.85517,-5.86794
-2.28392,1.24475,-5.90004
-2.62584,1.63926,-5.87954
-2.9291,1.79845,-5.74212
-2.66119,1.99907,-5.729
-2.36948,0.366568,-6.16067
-1.95802,0.549807,-5.3776
-2.27303,0.0105033,-5.82142
-1.95626,0.510427,-5.5327
-4.17119,2.53986,-5.98151
-4.31613,2.69465,-6.01915
-4.58262,2.16483,-5.09161
-4.6915,2.54157,-5.26652
-4.94866,2.88161,-5.4875
-4.42436,3.08823,-4.88822
-4.47754,2.87356,-4.92019
-4.7681,2.11784,-5.64338
-4.44468,2.26362,-6.3339
-4.8689,2.24861,-5.73767
-3.82701,3.05807,-4.48996
-1.76939,2.2282,-4.60943
-1.88219,2.39615,-4.62182
-2.69843,2.50965,-4.971
-2.70474,2.64195,-4.98486
-1.94991,2.67917,-4.60356
-1.87843,2.55663,-4.79733
-2.01972,2.7493,-5.00133
-3.41633,3.23318,-5.12528
-3.29112,3.07862,-5.14816
-4.65671,3.11624,-5.06111
-3.85622,3.1274,-5.43259
-2.3609,4.29459,-4.60391
-2.34903,4.29645,-4.80218
-2.52912,4.2876,-4.87979
-2.56631,4.35129,-4.66005
-3.62868,3.55874,-4.76977
-3.52213,3.58502,-4.99698
-3.7432,3.78334,-4.76569
-3.61876,3.52948,-5.15706
-3.76781,3.3458,-5.29052
-4.01705,3.45344,-5.25302
-3.83972,3.63249,-5.21372
-4.36955,3.53478,-4.85393
-4.27538,3.57947,-5.11136
-4.18068,3.36852,-5.07845
-3.86523,4.13455,-4.84506
-4.07974,4.09291,-4.65545
-4.10136,3.73469,-5.30696
-3.86011,3.85937,-5.23161
-4.33106,3.81304,-5.16132
-3.76262,4.12131,-5.0961
-3.98726,4.48522,-4.9301
-4.48921,4.00221,-4.93225
-4.5191,4.31183,-5.20559
-4.25196,4.16004,-5.36435
-4.69104,4.51997,-5.052
-4.57147,4.47011,-4.86753
-4.51872,4.63748,-4.82715
-4.66106,4.707,-4.9707
-4.06648,4.72738,-4.98089
-4.23118,4.72516,-4.78642
-4.58907,4.57069,-5.29224
-3.96421,4.62699,-5.20745
-4.11551,4.89605,-5.08506
-4.25862,4.9237,-4.88587
-4.07525,4.41301,-5.33825
-4.14874,4.61649,-5.38305
-4.78752,5.3606,-5.22879
-4.76672,5.03921,-5.1667
-4.6626,4.92903,-5.03984
-4.6683,5.22605,-5.06702
-4.2108,5.21723,-5.24201
-4.26178,5.17768,-5.06382
-4.08251,4.99183,-5.26435
-4.36475,5.36573,-5.12168
-4.36495,5.21133,-4.96847
-4.44778,4.74531,-5.46955
-4.4356,5.06056,-5.49619
-4.17186,4.93292,-5.39281
-4.64634,5.12812,-5.47677
-4.67837,4.87914,-5.35942
-4.80066,4.98264,-5.24169
-4.75821,5.20618,-5.38808
-4.56042,5.36567,-5.31475
-4.51945,5.4174,-5.15879
-4.37829,5.35011,-5.28949
-4.17624,3.45802,-5.07262
-4.05421,3.50945,-5.28771
-4.30763,3.67257,-5.06698
-4.46102,3.55925,-4.92671
-4.17404,3.21815,-5.66705
-4.38558,3.27829,-5.67683
-4.32347,3.40569,-5.64694
-4.13595,3.37746,-5.55696
-4.56771,3.2188,-5.54329
-4.63924,3.34268,-5.54066
-4.41116,3.93837,-5.17265
-4.65571,3.92711,-5.01589
-4.19566,3.77245,-5.39353
-4.46043,4.10316,-5.25701
-4.49693,3.48766,-5.70284
-4.34349,3.56951,-5.63804
-4.73755,3.55276,-5.56727
-4.97366,3.76587,-5.36441
-4.98933,4.06767,-5.63667
-4.64767,3.89791,-5.73243
-4.38443,4.13296,-5.46405
-4.6154,4.39641,-5.25333
-4.78992,4.32629,-5.13118
-4.54084,4.2395,-5.67529
-4.3437,3.80382,-5.61205
-5.11239,4.43704,-5.26252
-5.24076,4.51411,-5.42318
-5.22689,4.31326,-5.5077
-5.13005,4.26766,-5.30485
-4.67839,4.58205,-5.30957
-4.86442,4.55395,-5.14974
-5.07394,4.32962,-5.70395
-5.25023,4.53602,-5.5853
-5.15499,4.64089,-5.34143
-5.23442,4.6333,-5.45821
-4.54095,4.55388,-5.53487
-4.7318,4.78152,-5.42092
-4.90598,4.7331,-5.25251
-4.80048,4.54706,-5.89076
-4.68759,4.38551,-5.81319
-4.8754,4.3624,-5.86805
-5.10041,4.54004,-5.78233
-5.36155,5.13067,-5.66136
-5.31566,4.84556,-5.6192
-5.24512,4.72179,-5.47026
-5.28137,5.00985,-5.48324
-4.81326,5.0667,-5.58567
-4.89396,5.01229,-5.4168
-4.67121,4.87173,-5.60133
-4.99275,5.18431,-5.48649
-5.00426,5.01158,-5.33679
-4.98892,4.65836,-5.91637
-4.96903,4.85791,-5.89263
-4.76986,4.76323,-5.814
-5.16746,4.90567,-5.88467
-5.19602,4.71746,-5.78687
-5.36646,4.81688,-5.6487
-5.321,4.99168,-5.77613
-5.14312,5.16303,-5.69564
-5.13538,5.21147,-5.53743
-4.96937,5.17377,-5.65527
-4.52774,3.22053,-5.50124
-4.34661,3.17146,-5.67541
-4.69467,3.47866,-5.56343
-4.43163,3.07842,-5.94677
-4.43551,2.90376,-6.0531
-4.653,2.95903,-6.09975
-4.61228,3.11026,-6.06841
-4.86628,2.89883,-6.00243
-5.01065,3.03845,-5.9948
-5.25439,3.19199,-5.81825
-5.07448,3.21915,-6.04103
-4.56392,3.46972,-5.76003
-4.83412,3.66057,-5.61972
-5.03816,3.64588,-5.50826
-4.78391,3.19142,-6.1507
-4.63647,3.25981,-6.0507
-5.10365,3.38143,-6.09723
-4.90441,3.79886,-5.66553
-5.15353,3.78225,-5.58836
-5.39254,3.59623,-5.95006
-5.32433,3.72786,-6.16814
-4.99099,3.57819,-6.24075
-4.74371,3.83562,-5.86159
-5.02553,4.06186,-5.71468
-5.19658,3.95099,-5.62283
-4.81756,3.97847,-6.03992
-4.64425,3.49107,-5.99591
-4.82419,3.66507,-6.16194
-5.50629,4.03929,-5.81057
-5.61236,4.1077,-5.99301
-5.57117,3.91177,-6.0699
-5.50175,3.86646,-5.85044
-5.09198,4.24022,-5.78263
-5.28428,4.17856,-5.6577
-5.3968,3.94083,-6.24214
-5.59108,4.11645,-6.15291
-5.55072,4.23544,-5.89869
-5.60973,4.21906,-6.02873
-4.90361,4.20584,-5.95374
-5.12701,4.39152,-5.88981
-5.32125,4.34771,-5.76382
-4.96096,3.84088,-6.26247
-5.12806,3.91505,-6.33372
-5.03557,4.04827,-6.32545
-4.91418,4.0253,-6.18638
-5.3754,4.06147,-6.29809
-5.7595,4.72188,-6.22364
-5.68498,4.42935,-6.15997
-5.59853,4.32275,-5.99464
-5.67004,4.59135,-6.04187
-5.22802,4.70218,-6.0975
-5.31765,4.62778,-5.93394
-5.05489,4.4895,-6.06237
-5.43131,4.7972,-6.0184
-5.44302,4.61966,-5.85702
-5.08537,4.33032,-6.28228
-5.24747,4.15497,-6.40388
-5.29109,4.42098,-6.4074
-5.48814,4.45383,-6.44223
-5.50767,4.26174,-6.34061
-5.68435,4.3895,-6.26162
-5.63706,4.56209,-6.39034
-5.56024,4.81717,-6.09576
-5.37675,4.78402,-6.19835
-5.52378,4.75337,-6.26048
-5.01939,2.16207,-6.14314
-5.03717,2.22948,-5.97119
-4.58499,2.56564,-5.87626
-4.52718,2.74885,-6.0604
-4.70948,2.67249,-5.87534
-4.56921,2.66502,-6.32229
-4.55384,2.48635,-6.40505
-4.72664,2.51591,-6.47145
-4.6773,2.69067,-6.39756
-4.9037,2.37737,-6.36232
-5.01704,2.5101,-6.39333
-4.84693,2.90787,-5.94809
-4.97968,2.68272,-5.84347
-5.23598,2.56097,-6.24324
-5.11585,2.66133,-6.44033
-4.6838,2.9386,-6.14742
-4.91024,3.04399,-6.05088
-5.08115,2.97964,-5.95769
-4.94655,3.14826,-6.11227
-5.16967,3.08118,-6.03794
-5.33271,2.8517,-6.35767
-5.25127,2.98304,-6.55114
-4.94546,2.87017,-6.57096
-5.47886,3.0827,-6.35685
-5.44396,2.99467,-6.45247
-5.44322,3.0503,-6.29204
-4.82034,3.23287,-6.28931
-5.04408,3.32418,-6.1706
-4.92891,3.29772,-6.50887
-4.83293,3.07537,-6.46983
-5.30793,3.06964,-6.59409
-5.45308,3.2383,-6.25078
-5.52123,3.2923,-6.40453
-5.48467,3.15233,-6.50871
-5.27277,3.36107,-6.1171
-5.10278,3.47466,-6.23457
-5.30136,3.19896,-6.65251
-5.52445,3.37011,-6.43914
-5.48793,3.38948,-6.32032
-5.11958,3.59322,-6.3105
-4.95273,3.49411,-6.39345
-5.05437,3.36571,-6.73669
-4.99807,3.31548,-6.66377
-5.09759,3.22666,-6.7468
-5.30126,3.28515,-6.70485
-5.63126,3.80715,-6.65658
-5.58439,3.55452,-6.57899
-5.53145,3.46978,-6.44128
-5.57281,3.70453,-6.48548
-5.19905,3.82687,-6.49701
-5.28786,3.74601,-6.33978
-5.0626,3.69391,-6.46678
-5.38005,3.88421,-6.43648
-5.39279,3.71991,-6.27824
-5.19419,3.39289,-6.7883
-5.21008,3.5804,-6.78027
-5.07229,3.56237,-6.67517
-5.3767,3.58377,-6.81638
-5.40545,3.41591,-6.72797
-5.56966,3.49894,-6.66854
-5.51975,3.66305,-6.78334
-5.47315,3.90027,-6.52956
-5.32174,3.87986,-6.59779
-5.43454,3.84639,-6.67167
-2.24849,2.86388,-5.17084
-2.08737,3.02562,-4.97944
-1.94758,2.88686,-4.76
-2.28678,3.1167,-5.12117
-2.08356,3.28238,-4.93147
-1.97027,3.19128,-4.73496
-2.46389,3.21291,-5.10268
-2.45986,2.95181,-5.18227
-2.62374,3.07494,-5.06262
-2.52878,3.08529,-4.35373
-2.71903,3.16338,-4.50171
-2.79417,3.01938,-4.77714
-2.68167,2.91189,-4.57225
-2.36261,3.19998,-4.31973
-2.32029,2.99396,-4.37295
-2.16489,3.12011,-4.44181
-1.974,3.42982,-4.71419
-2.26971,3.29735,-5.10408
-2.0978,3.47873,-4.95244
-2.47377,3.34552,-5.13169
-2.63561,3.24435,-5.01854
-2.58461,3.32247,-4.30854
-2.78937,3.37973,-4.47855
-2.83513,3.21404,-4.7113
-2.43118,3.47985,-4.30292
-2.19482,3.3577,-4.4057
-2.04867,3.65824,-4.74699
-2.32976,3.60091,-5.12686
-2.22512,3.85195,-4.94213
-2.81878,3.29453,-4.88631
-2.91964,3.49929,-4.70902
-2.87577,3.77641,-4.87874
-2.70533,3.53122,-5.03515
-2.65334,3.57775,-4.33662
-2.8383,3.74904,-4.51818
-2.45587,3.60032,-4.35576
-2.41851,4.11186,-5.00038
-2.18659,4.05439,-4.7461
-2.56471,3.84055,-5.09716
-2.71398,4.07176,-4.93769
-2.89886,4.02725,-4.68337
-2.71387,3.97996,-4.4
-2.77909,4.2371,-4.53738
-2.39595,4.05805,-4.4721
-2.59031,4.26347,-4.46733
-2.60533,3.99367,-4.39726
-2.44755,3.80672,-4.43184
-4.46436,3.25951,-5.84778
-4.24203,2.97063,-5.80928
-5.20213,3.47035,-5.61685
-5.27547,3.61635,-5.68116
-5.37691,3.812,-5.74815
-5.37892,3.98893,-5.67481
-5.44572,4.2439,-5.758
-5.47047,4.33111,-5.83393
-4.92351,4.22998,-6.11852
-5.65189,4.81379,-6.04657
-5.54027,4.38518,-5.90628
-5.517,4.5821,-5.89629
-5.17143,4.60077,-6.21143
-5.50092,4.63081,-6.40128
-5.33731,4.65508,-6.33467
-3.99291,3.16735,-5.56911
-3.96901,3.34788,-5.45155
-3.9228,3.29189,-5.27351
-4.73372,3.57733,-5.05052
-4.6501,3.39514,-5.01166
-4.13815,3.54371,-5.45435
-4.97385,4.14611,-5.2053
-4.97496,4.38113,-5.151
-5.03181,4.63526,-5.22045
-5.06428,4.73571,-5.2953
-4.60727,4.64054,-5.70191
-5.25193,5.19812,-5.45202
-5.13314,4.79895,-5.34095
-5.12138,4.97318,-5.32526
-4.78727,4.96803,-5.71179
-4.96526,5.05064,-5.79672
-5.15384,5.06272,-5.83305
-5.05677,2.42407,-5.94691
-4.6029,2.80366,-6.22392
-4.44705,2.63763,-6.18058
-5.21375,2.78889,-6.06258
-5.26044,2.89152,-6.12021
-4.71961,2.8454,-6.3844
-5.34875,3.05695,-6.19685
-5.359,3.1876,-6.13868
-5.4105,3.39851,-6.20864
-5.42515,3.46985,-6.26363
-4.9747,3.52191,-6.54079
-5.55234,3.89428,-6.48929
-5.47287,3.52742,-6.33844
-5.4612,3.68499,-6.33775
-5.13494,3.74419,-6.60125
-5.40549,3.73559,-6.78513
-5.26554,3.76213,-6.71468
-3.58082,3.28625,-5.23619
-3.50047,3.41968,-5.13182
-3.43923,3.35187,-4.97085
-4.15437,3.54039,-4.63699
-4.26404,3.74647,-4.68922
-4.41513,4.34929,-4.79969
-3.97418,4.1762,-5.3015
-4.37904,4.55828,-4.75452
-4.39653,4.83849,-4.81584
-4.42887,4.89598,-4.86587
-4.62584,5.41482,-5.06002
-4.50778,5.01295,-4.94003
-4.49293,5.18815,-4.94151
-4.22475,5.1549,-5.36038
-4.41988,5.25182,-5.42459
-4.61087,5.27324,-5.43299
-2.77431,4.25327,-4.72996
-2.26059,3.83532,-4.5413
-2.22718,4.04862,-4.6202
-2.75194,2.88335,-4.98572
-2.75143,3.16774,-4.90508
-2.01807,3.03923,-4.58359
-2.01468,3.2738,-4.55189
-2.05724,3.53129,-4.54986
-2.13242,3.64253,-4.57752
-4.49855,4.91866,-4.95175
-4.55006,4.83231,-4.93433
-4.41691,5.00078,-4.92429
-4.44313,5.17815,-4.97475
-4.74315,4.98593,-5.16199
-4.70231,4.80753,-5.07406
-4.59498,4.83379,-5.00329
-4.55675,4.89474,-4.97011
-4.45578,5.0157,-4.93548
-4.50807,5.35866,-5.00832
-4.68585,5.47221,-5.21106
-4.73144,5.34271,-5.30726
-4.66607,4.85643,-5.06217
-5.10213,4.72786,-5.35039
-5.15018,4.69303,-5.38349
-5.03458,4.80638,-5.30393
-5.06154,4.97231,-5.34793
-5.34615,5.08501,-5.67723
-5.33615,5.08727,-5.68113
-5.42035,4.95996,-5.65314
-5.32306,4.79365,-5.58903
-5.26565,4.66217,-5.51572
-5.1822,4.64956,-5.43042
-5.16299,4.69578,-5.38185
-5.07109,4.80223,-5.32002
-5.13491,5.15167,-5.38434
-5.29814,5.23664,-5.61266
-5.36832,4.99215,-5.69363
-5.24127,4.66265,-5.50364
-5.50147,4.31388,-5.89559
-5.53909,4.28056,-5.93983
-5.44836,4.40451,-5.82716
-5.6294,4.24524,-6.08794
-5.56235,4.25014,-5.98336
-5.54162,4.2804,-5.92886
-5.70014,4.8403,-6.18875
-5.67669,4.71352,-6.28846
-5.43488,3.47402,-6.33011
-5.47149,3.43664,-6.37204
-5.39361,3.54155,-6.25307
-5.4293,3.67544,-6.31018
-5.56847,3.51059,-6.5906
-5.53549,3.38314,-6.51442
-5.48763,3.40649,-6.42728
-5.47555,3.44104,-6.37157
-5.429,3.52373,-6.30223
-5.57654,3.92099,-6.62937
-5.55562,3.80086,-6.70896
-5.52114,3.41815,-6.47009
-2.57627,3.74078,-4.37918
-2.43351,3.69305,-4.44317
-2.29703,3.6287,-4.46659
-2.24068,3.72549,-4.57339
-2.14794,3.80258,-4.6689
-2.19523,4.02775,-4.66513
-2.3296,3.72623,-4.48719
-2.19859,3.82056,-4.62144
-2.12295,2.83743,-4.47592
-2.59992,2.79201,-5.11518
-2.76663,2.73024,-4.82007
-2.4664,2.80192,-4.40206
-3.77058,3.38523,-4.55154
-4.13505,3.23574,-4.66133
-4.25328,3.25748,-4.8601
-3.90226,3.20774,-5.26428
-4.27607,3.0731,-5.67033
-4.35268,3.3142,-4.91623
-4.77323,3.1225,-5.38377
-4.53168,2.75955,-6.0754
-4.27224,2.85705,-5.94732
-4.61821,2.27864,-6.38492
-4.39899,2.55957,-6.00753
-4.43079,2.46129,-6.27462
-4.16721,-5.37844,-0.0587692
-3.12531,2.81857,-5.22256
1.66375,-0.263253,7.65544
1.70979,-0.938326,8.07428
1.57755,-0.56658,8.42882
1.97742,0.406422,7.25403
1.67543,0.135328,8.09475
3.52369,0.545031,6.10773
3.29229,0.828838,6.68528
3.51446,1.13693,7.2108
2.02655,-1.71725,8.38928
1.81698,-1.31481,8.75346
2.06089,0.74945,7.79178
2.40128,0.783929,7.00857
2.89676,0.887502,6.79417
3.07431,1.1639,7.36379
2.55634,1.07855,7.58183
2.76273,-2.93298,8.43593
2.61172,-3.11113,8.25845
2.78962,-3.38658,8.20082
2.23921,-2.25492,8.54037
2.67273,-3.432,8.07231
2.46827,-2.77345,8.32524
2.61033,-2.66036,8.48801
2.44769,-2.27373,8.72501
2.79948,-2.52986,8.65289
2.4676,-1.9938,9.01798
4.76181,0.33722,-4.73425
4.65728,0.420687,-4.74599
4.67706,0.426974,-4.77465
4.90214,0.532692,-4.59454
4.81739,0.622445,-4.63494
4.79762,0.616158,-4.60628
5.11751,3.544,11.0999
4.97119,3.65937,10.927
4.77996,3.70574,11.0786
4.97685,3.5692,11.2082
1.53368,-0.110333,8.84597
1.62954,-0.857729,9.04243
1.52085,-0.410177,9.4019
0.892101,-1.14883,12.9366
0.896982,-0.516226,12.4695
0.993324,-0.731684,11.7522
0.994496,-1.45888,12.1847
0.966276,-0.879817,13.7202
1.06159,-1.66177,13.264
1.10096,-1.38028,13.9146
1.2433,-0.0141448,14.353
0.964986,-0.230812,13.5817
1.21334,-0.630086,14.4774
1.66888,0.669574,14.5212
1.79639,0.272092,15.084
3.711,2.72915,14.7145
3.46004,2.85711,14.2794
3.21305,2.44205,14.5835
5.27708,2.89054,14.8496
5.02147,3.12433,14.4938
4.44672,2.88234,14.8466
4.74011,2.64726,15.1967
3.70064,1.71861,15.6273
4.24358,2.2577,15.4369
3.92742,2.49899,15.1052
3.43254,1.94782,15.3465
3.61628,3.22906,13.5748
4.02169,3.48814,13.3458
3.85208,3.52557,12.9696
3.50557,3.27932,13.1413
3.80943,3.15674,14.0665
4.1255,3.0419,14.5002
4.22635,3.30999,13.973
2.89006,2.03548,8.53622
2.51812,1.49543,8.54485
2.52427,1.88789,8.80297
3.49264,3.34176,8.99881
3.81225,3.55351,9.20681
3.9187,3.46989,8.78803
3.89383,3.24514,8.32787
4.13918,3.51889,8.38566
4.52251,3.49735,7.98807
4.74338,3.75127,8.7623
4.40162,3.68774,8.75195
4.31923,3.69294,9.06201
4.56778,3.74065,8.96822
3.50263,3.58683,10.0249
3.86648,3.78416,10.2824
4.0814,3.71158,9.4718
2.52975,2.86738,11.2124
2.5688,2.82941,11.706
2.83208,3.13525,11.3974
3.22454,3.01359,13.1332
3.372,3.21217,12.7827
4.93781,3.2233,11.7709
4.83712,3.30339,11.7006
4.67121,3.40037,11.7233
4.81339,3.28406,11.8077
3.72238,3.40183,12.0212
3.78033,3.41282,12.0598
3.87293,3.43914,12.0514
3.8413,3.45188,12
3.88043,3.74038,11.2044
3.6566,3.64742,11.3699
3.97405,3.65924,11.4788
4.74176,3.46867,12.1046
4.52957,3.53706,12.0943
4.3409,3.58938,12.2042
4.57176,3.53828,12.2531
4.93937,3.50279,11.3472
5.11263,3.41882,11.3494
5.08905,3.19634,11.8685
5.04968,3.20254,11.7733
4.94535,3.18669,11.7594
4.96202,3.23899,11.8715
4.81314,3.33184,11.9148
4.92737,3.33388,12.0649
5.14617,3.55143,12.4771
5.34102,3.42903,12.2839
5.21941,3.24757,12.0907
5.03581,3.35754,12.211
5.4115,3.89986,10.7441
5.49961,3.81097,10.8809
5.70329,4.002,10.8082
5.59345,4.05726,10.6992
5.84657,3.91983,10.8561
5.91012,4.08559,10.7092
5.12022,3.65524,10.7425
5.06331,3.6768,10.6869
5.02134,3.63522,10.648
5.07634,3.61733,10.7258
4.47125,3.63807,13.0043
4.71436,3.46655,13.5937
5.10622,3.34985,13.8617
5.16815,3.57744,13.0969
5.54181,3.25943,13.9146
5.7909,2.99139,14.3374
6.03627,3.23203,13.2554
5.57641,2.51462,15.1493
5.78859,4.16304,10.5805
5.6735,4.14789,10.4249
5.48215,4.04416,10.586
3.27605,2.92477,13.7481
2.98014,2.72561,13.3648
3.18059,3.05775,12.357
3.04597,3.06422,12.0765
2.84699,2.8823,12.2275
5.15016,3.73713,10.7184
5.21512,3.66238,10.8096
5.27193,3.79037,10.7474
5.50419,4.02991,10.2919
5.42846,3.96167,10.234
5.30623,3.96797,10.3137
5.35453,4.01866,10.4137
4.26907,3.81128,9.75751
4.3501,3.74618,9.53146
4.24604,3.76591,9.54951
5.27155,3.76766,10.0229
5.08511,3.79322,10.0017
4.98355,3.76792,10.1605
5.15497,3.75369,10.1346
4.73086,3.54547,11.4267
4.88814,3.38898,11.5322
3.90666,3.50084,12.0432
3.80272,3.45184,12.0808
3.85112,3.48823,12.1915
3.98454,3.55675,12.1567
3.82114,3.43185,12.0271
3.75317,3.40543,12.1214
4.00298,3.4888,11.979
4.03405,3.52554,11.8581
3.8569,3.488,11.8764
4.13805,3.57676,12.2699
4.16314,3.57712,12.1121
4.78098,3.76174,8.98628
4.99088,3.78415,9.00625
5.0165,3.74986,8.88421
3.46113,3.40385,11.8105
3.63975,3.5022,11.7171
3.37404,3.51032,11.424
3.15802,3.4475,10.856
2.81648,3.11876,10.284
3.171,3.30662,9.54401
2.77517,2.92607,9.43938
3.20946,3.0567,8.90254
2.87564,2.58667,8.84589
3.49819,2.74246,8.36078
5.05716,3.20791,11.7232
4.99943,3.19406,11.7387
5.12974,3.20239,11.7573
2.77268,1.41506,8.06721
2.23839,1.10753,8.29449
3.12065,1.82961,8.27297
3.08402,1.4844,7.93184
3.74599,2.42662,8.10851
5.42481,3.82053,9.24127
5.55288,3.78209,9.11229
5.4215,3.78257,8.9843
5.26659,3.8524,9.12948
5.62223,3.75056,9.29798
4.85392,3.78182,9.1344
5.05362,3.82513,9.1028
5.21846,3.7937,8.96647
4.87888,3.80565,9.27274
5.08625,3.82723,9.31771
5.27087,3.77678,9.41872
4.90323,3.72992,9.48453
5.07656,3.65642,9.55777
5.6626,3.67339,9.90872
5.62828,3.69215,9.91209
5.62298,3.70457,9.93199
5.19432,3.80786,9.90677
4.95897,3.84377,9.8175
4.8441,3.81939,9.91537
5.40737,3.75798,9.94968
5.53254,3.74767,9.91692
5.34302,3.81871,9.8776
5.33777,3.9489,10.5775
5.15669,3.84108,10.5669
5.0367,3.73991,10.5314
4.45326,3.70393,9.441
4.40667,3.71022,9.47623
4.46335,3.69549,9.50565
4.49515,3.67305,9.48882
4.4192,3.74112,9.56669
4.48114,3.73159,9.56002
4.54726,3.73902,9.50867
4.50495,3.67446,9.45834
4.9951,3.83058,9.44068
4.80087,3.83645,9.54044
4.9546,3.88635,9.69279
5.17259,3.89256,9.5952
5.34184,3.88903,9.76145
5.50405,3.86012,9.60455
5.32854,3.8416,9.45902
5.63432,3.80541,9.72069
5.57346,3.75641,9.36473
5.04416,3.72127,10.2369
4.95916,3.70911,10.317
4.97371,3.65514,10.4286
4.98407,3.69062,10.3452
5.17334,3.75389,10.1395
5.15041,3.79016,10.1889
5.31996,3.79423,10.1513
5.34019,3.77095,10.0948
5.41261,3.75968,10.0337
5.46418,3.76841,10.0669
5.68675,3.73073,9.95896
5.69481,3.66918,9.91518
5.67843,3.67719,9.91553
5.63042,3.71961,9.9478
5.49326,3.92699,10.1994
5.55463,3.95774,10.1822
5.56643,3.89098,10.1643
5.52558,3.87363,10.1986
5.14817,3.87367,10.2994
5.1942,3.93063,10.4104
5.27846,3.89982,10.2341
5.31457,3.82902,10.2027
5.39185,3.87192,10.1926
5.39778,3.78707,10.1949
5.45477,3.84641,10.1851
5.04607,3.77952,10.3256
5.2191,3.84335,10.2062
5.4352,3.78708,10.1919
5.34652,3.80836,10.1979
5.43481,3.77287,10.25
5.39893,3.7735,10.2277
4.03672,2.39158,7.96922
3.54134,1.81463,8.04171
4.94909,3.60827,8.01171
4.71974,3.11087,7.77966
4.64142,3.72753,8.38677
1.99636,-1.59789,9.21072
1.75834,-1.18794,9.4776
1.59115,-2.28441,11.8804
2.14295,-2.36334,11.1049
2.06552,-2.82548,12.279
2.17524,-2.95221,13.3972
1.61605,-2.51125,12.9873
2.38534,-1.84052,9.36397
3.06072,1.05083,15.7415
2.84928,1.28121,15.5062
2.44442,0.602936,15.5939
1.64105,-0.418546,15.1516
2.27019,-0.164423,15.6731
1.33051,-1.84744,14.0355
1.52542,-1.67203,14.5559
1.32119,-1.18189,14.5695
1.6798,-1.02215,15.1813
3.26016,0.702855,15.961
3.97089,1.30999,15.8744
1.9935,-1.47052,15.2304
1.67377,-2.1104,14.3287
2.28816,-2.04338,14.9852
2.23253,-0.968833,15.642
3.50481,0.354474,16.1169
2.89778,0.0427289,16.0034
2.86591,-0.861621,15.9364
1.8203,-2.53041,13.9207
1.36994,-2.13391,13.5781
0.873148,-0.286654,12.9328
1.14981,0.4505,13.4132
1.01686,0.224095,13.0026
1.97079,1.86081,11.4962
2.04215,2.06631,11.179
1.91124,1.80434,11.1153
1.50082,0.95687,13.6524
2.23655,1.4895,14.4299
1.91542,1.59248,13.5146
1.84832,1.6046,12.6463
1.74007,1.34814,12.7827
1.65888,1.25679,13.1149
1.86023,1.62901,12.9771
2.03571,1.85213,12.6348
2.25241,2.05691,13.0665
1.43931,0.890552,13.0897
0.937365,-0.048462,12.3526
1.45939,-0.468011,10.287
1.39583,-0.31323,10.5964
1.51365,0.360585,10.3048
1.52056,0.131574,9.9773
1.51385,-0.0531086,9.71041
1.67677,0.566985,9.59679
1.62838,0.35808,9.2389
1.99566,1.22595,9.32878
1.88639,1.35641,9.70789
2.02382,1.47846,9.34364
5.43822,3.23417,11.6848
5.45715,3.33131,11.456
5.32417,3.32478,11.4697
5.32183,3.24842,11.639
5.59636,3.31155,12.0349
5.43889,3.2231,11.9271
5.31973,3.22717,12.0257
5.46747,3.36329,12.1585
5.40866,1.82181,15.6545
5.02563,1.27249,15.9032
2.47857,-2.76205,14.3581
3.06102,-1.88093,15.6148
4.20798,3.51365,11.8511
4.3281,3.52459,11.7474
4.11933,3.5513,11.741
5.16421,3.17727,11.8508
5.23175,3.18056,11.8126
5.1761,3.20633,11.7193
5.05294,3.18665,11.9913
5.13061,3.12605,11.9474
4.7961,3.41521,12.2253
4.94859,3.24263,12.1235
4.3533,3.55403,12.3134
4.58668,3.46661,12.2817
3.97301,3.50378,12.291
4.1531,3.50223,12.3169
3.87117,3.42374,12.2718
3.78934,3.41575,12.2021
3.86691,3.39841,12.22
3.83416,3.40912,12.2262
3.99064,3.42742,12.1849
3.38014,3.21148,12.183
3.34386,3.16951,12.49
3.47467,3.25854,12.2742
3.30654,3.25554,11.9781
3.49399,3.31139,12.0431
3.08087,3.21388,11.7556
4.22924,3.79942,11.1534
3.92629,3.82791,10.9024
5.25133,3.41878,11.2904
5.37501,3.45971,11.2197
5.24131,3.56893,11.0085
5.59102,3.3951,11.3726
5.48998,3.55025,11.141
5.09983,3.65789,8.81014
5.10085,3.66928,8.71423
5.11994,3.70787,8.52968
4.83664,3.69691,9.34414
5.07324,3.7373,9.35451
5.40362,3.70667,9.33518
5.16477,3.59994,9.29766
4.7209,3.56583,9.32791
4.58098,3.63205,9.3754
4.67064,3.73812,9.42014
4.52366,3.61456,9.44801
4.57312,3.56993,9.47352
4.56027,3.64763,9.50454
2.40525,2.6456,10.0674
2.07788,2.22895,10.5284
2.37245,2.59171,10.8344
2.20593,2.35454,11.4421
2.12447,2.04414,11.8593
2.34703,2.43739,11.9087
4.34659,3.71935,9.2685
5.08968,2.29851,15.4723
4.61101,1.87584,15.7021
4.35308,0.73369,16.0649
4.25715,0.0411309,16.1424
5.18657,3.32869,11.4829
5.18595,3.22536,11.673
5.28839,3.19836,11.7545
5.19558,3.26951,11.5914
5.10487,3.28801,11.5433
5.0843,3.24052,11.636
5.05274,3.27468,11.5837
5.01943,3.21482,11.7217
5.00114,3.22758,11.6938
4.98623,3.18711,11.7961
5.01014,3.20276,11.7415
5.08284,3.21732,11.6876
2.40589,2.03238,9.1
1.92994,1.73982,9.83817
2.28922,2.29971,9.59182
5.65449,3.68727,9.87816
5.69337,3.6659,9.89016
5.68056,3.72697,9.80729
4.17469,-0.673121,16.133
3.57851,-1.24588,15.9624
1.69783,0.675545,9.89734
1.85036,0.876515,9.49078
5.43026,3.73041,10.2447
5.44143,3.73925,10.2384
5.44382,3.73654,10.2972
5.47031,3.70642,10.3449
5.47632,3.74812,10.2905
5.4494,3.68676,10.3323
4.46277,3.77486,9.6867
4.54628,3.77156,9.63527
5.13354,3.87498,9.80126
4.77543,3.84997,9.71893
5.50951,3.82753,9.85225
4.67404,3.78942,10.4312
4.89858,3.6951,10.4639
4.76061,3.76082,10.3393
4.40105,3.82204,9.91687
4.23284,3.85476,10.1494
4.6547,3.80894,9.76221
4.53163,3.81776,9.93638
4.72509,3.81647,10.1318
5.0757,3.15684,12.0359
5.17792,3.14417,11.9728
5.05289,3.12606,12.0222
4.53926,3.46436,12.18
4.29909,3.55827,12.3817
4.54288,3.60087,12.5347
4.77577,3.44194,12.2497
4.90893,3.24479,12.0788
4.91543,3.22646,12.0755
4.73363,3.34014,12.1115
4.56078,3.4063,12.1759
4.33988,3.47029,12.1664
4.15309,3.43898,12.216
4.12896,3.4976,12.2172
3.90411,3.4616,12.3744
4.02397,3.54359,12.6121
3.71694,3.45113,12.7208
3.64143,3.37027,12.4786
4.75362,3.21839,11.8614
4.90992,3.18438,11.8525
4.63653,3.34078,11.8181
4.49438,3.44306,12.0124
4.34135,3.53828,12.0704
4.66294,3.41584,11.9848
4.90065,3.1312,11.771
4.84414,3.18903,11.7963
4.94462,3.15821,11.7364
4.73319,3.24626,11.8838
3.99062,3.43898,11.9745
3.89035,3.43965,11.9866
4.04593,3.51484,12.0338
4.09787,3.40677,12.0208
4.13441,3.46932,11.9405
3.99464,3.43867,12.0543
4.20142,3.49002,12.0262
4.96407,3.14671,11.7499
4.97649,3.17729,11.7476
4.25223,3.4181,11.9072
4.35166,3.45211,11.843
4.99319,3.17536,11.7741
4.95417,3.1561,11.8203
4.98599,3.15935,11.7625
3.89999,3.42413,12.0473
3.94367,3.41017,12.0085
4.00412,3.40492,12.0795
4.84569,3.15262,11.8094
4.90272,3.15655,11.8216
4.94447,3.19257,11.8301
4.89892,3.19289,11.8185
5.0055,3.1674,11.7808
5.00175,3.16149,11.7728
2.63439,2.5215,12.5846
2.6428,2.2465,13.9021
5.29587,3.75917,10.0679
5.53427,3.73678,9.97897
5.55494,3.75906,10.0052
1.92157,1.75339,11.7494
2.04166,1.86037,12.203
4.74882,3.44535,9.59831
4.74212,3.52963,9.59915
4.62251,3.60794,9.55852
4.62988,3.5333,9.54763
4.90382,3.52667,9.59988
4.76858,3.63207,9.58209
5.0361,3.48837,9.3392
4.99933,3.41937,9.42405
4.85913,3.48756,9.36094
5.34784,3.47412,9.2836
5.26493,3.39985,9.34507
4.75707,3.41116,9.44482
4.63811,3.48327,9.38587
4.63751,3.44921,9.52684
4.59701,3.48939,9.4369
5.47605,3.49597,9.53876
5.50828,3.37075,9.50932
5.60531,3.44759,9.49659
5.58921,3.57267,9.49289
1.81405,0.609723,8.56117
1.98496,1.00622,8.97152
4.32654,3.86295,10.5953
4.99409,3.6437,10.5562
4.98243,3.65893,10.5088
4.57671,3.81671,10.7724
4.81995,3.74259,10.5811
4.54424,3.8064,10.9664
4.82763,3.74031,10.8052
4.53223,3.69545,11.2844
4.47735,3.57499,11.5057
4.63782,3.6847,9.52672
4.54821,3.70204,9.4719
4.57864,3.72965,9.3704
4.44393,3.71229,9.33325
4.64475,3.8086,9.61597
4.56175,3.55295,9.38371
3.46007,1.44467,7.71117
3.90682,1.73317,7.88922
5.84178,4.12774,10.3014
5.93965,4.14876,10.431
5.90985,4.01092,10.1786
4.29878,2.44619,7.87139
1.88764,1.08066,9.73801
1.29631,1.21655,12.6139
1.38532,1.11902,12.533
1.44259,1.05199,12.5805
1.32074,1.12837,12.6529
0.915077,0.85096,12.8287
0.965401,0.794608,12.753
0.864596,0.812166,12.7479
0.802933,0.808224,12.8686
1.08095,0.977711,12.8337
1.06495,0.854299,12.7908
0.943503,0.933661,12.9306
0.944499,0.759042,12.6464
0.843262,0.78386,12.6505
0.765186,0.752907,12.4142
0.844744,0.748205,12.2715
0.735047,0.792954,12.1523
0.636168,0.73959,12.3083
1.27982,1.4857,11.4044
1.18374,1.43078,11.503
1.27839,1.49454,11.5804
1.39305,1.55431,11.4946
0.800446,0.832339,12.0027
0.767737,0.915711,11.7899
0.663546,0.820856,11.9541
0.895316,1.04116,11.6356
0.949677,1.12249,11.5021
0.818456,1.00258,11.5937
1.34933,1.22628,12.3642
1.39473,1.10951,12.3292
1.47384,1.05325,12.3913
1.40164,1.13411,12.4219
1.3728,1.0726,12.2302
1.45939,1.02809,12.3046
1.34358,1.18202,12.2514
1.30585,0.947545,12.1569
1.307,1.02307,12.1268
1.2639,1.01292,12.0489
1.25934,0.934072,12.1099
1.08523,1.26596,11.6448
1.12735,1.24113,11.7193
1.1895,1.23083,11.7602
1.14832,1.30801,11.698
1.03953,1.20922,11.7071
1.06705,1.18456,11.806
1.17403,1.19994,11.7914
1.1066,1.11581,11.8922
0.926517,1.07098,11.8475
0.967261,1.03384,11.9581
1.03104,1.00202,12.0771
0.852775,0.936754,12.0888
0.927974,0.954719,12.2288
1.47257,1.4118,12.1132
1.49107,1.46649,12.0739
1.44253,1.46192,11.9914
1.41831,1.40256,12.0422
1.54606,1.48625,12.0933
1.51851,1.51409,12.0036
1.75328,1.35306,12.732
1.69303,1.39158,12.7964
1.71842,1.29748,12.8772
1.76004,1.23024,12.8284
1.32454,0.836836,13.218
1.09748,0.736148,13.2365
1.093,0.534672,13.1658
1.3072,0.647004,13.1293
0.905586,0.502265,13.0998
0.963026,0.393621,12.9699
1.14779,0.437834,13.0091
0.799955,0.407674,12.8938
0.865675,0.338519,12.7396
1.0458,0.352537,12.7997
0.749005,0.324247,12.4116
0.614688,0.38766,12.2749
0.70675,0.387964,12.0503
0.826819,0.340708,12.195
0.645149,0.503064,11.8474
0.827976,0.547699,11.6124
0.860331,0.447214,11.8194
0.842844,0.733133,11.4221
1.06918,0.778211,11.2812
1.05591,0.626745,11.4483
1.32863,1.01496,10.9346
1.40045,1.1635,10.8332
1.59289,1.14933,10.8092
1.51098,1.0157,10.9197
1.53709,1.39301,12.8525
1.58906,1.42518,12.7284
1.02954,0.742415,12.79
1.04905,0.717014,12.8042
1.09753,0.778915,12.8375
0.77212,0.531349,12.9873
0.912403,0.669879,13.1581
0.791259,0.674702,13.0294
1.29186,1.02104,12.8367
1.33339,1.02561,12.8
1.39966,1.08035,12.7304
1.35728,1.06815,12.7635
1.14712,0.965747,13.1962
0.971287,0.871579,13.1241
0.960098,0.737123,12.6947
0.899672,0.694174,12.5485
0.968794,0.694815,12.6749
0.680562,0.463077,12.7867
0.690052,0.584475,12.8796
0.829485,0.680703,12.3358
0.763388,0.707774,12.1997
0.815487,0.740754,12.1082
0.875753,0.68914,12.2564
0.549356,0.516804,12.1044
0.582466,0.449352,12.4749
0.531883,0.573562,12.3157
1.57179,1.27363,11.6365
1.56976,1.2921,11.5969
1.53436,1.2733,11.6178
1.55135,1.28087,11.6818
0.766446,0.824469,11.928
0.817712,0.916389,11.7974
0.835069,0.810046,11.9939
0.664966,0.683402,11.6367
0.571875,0.681202,11.8961
0.905529,1.06297,11.6422
0.989489,1.15415,11.536
0.906815,1.04613,11.6499
0.911673,0.929486,11.3059
0.771302,0.888179,11.4899
1.49302,1.33814,10.7797
1.20107,1.15657,10.9487
1.26795,1.30259,10.9109
1.60021,1.45611,12.4678
1.64805,1.45354,12.3496
1.5514,1.41994,12.2869
1.51255,1.03201,12.3405
1.53139,1.07741,12.3883
1.5163,1.07736,12.4601
1.48652,1.00345,12.2554
1.53318,1.03833,12.2927
1.48573,1.36438,12.1419
1.39995,1.2846,12.0712
1.43592,1.34054,12.2227
1.28218,0.908174,12.143
1.34476,0.918807,12.1547
1.38382,0.961401,12.1836
1.22452,0.930552,12.0433
1.23923,0.887307,12.0968
1.36126,1.13355,11.9123
1.35918,1.08243,11.8352
1.27641,1.01994,11.9021
1.28916,1.06555,11.9306
1.31058,1.0441,12.7475
1.40535,1.09759,12.6844
1.38343,1.07665,12.6861
0.807508,0.945526,11.7729
0.930745,1.10776,11.6596
1.00918,1.1991,11.5519
1.22441,1.12966,11.8404
1.30352,1.09181,11.7761
1.25688,1.14875,11.7668
1.1703,1.0355,11.9569
1.26396,1.04273,11.8788
0.731454,0.788972,12.0251
0.773242,0.906693,11.8697
1.15877,0.975546,12.1264
1.25287,0.968209,12.0161
0.738852,0.710796,12.2974
0.724686,0.791757,12.1265
0.830164,0.732,12.5433
1.0191,0.809923,12.7729
0.895069,0.801122,12.6432
1.53214,1.47664,11.6688
1.49376,1.39979,11.6454
1.45033,1.40806,11.6907
1.48762,1.4857,11.7325
1.34438,1.06175,11.7543
1.33202,1.05757,11.7378
1.29429,0.989925,11.8435
1.28339,0.959342,11.8808
1.24677,0.948649,11.9518
1.26136,0.877783,11.9928
1.23863,0.863285,12.0449
1.53375,1.10686,12.4004
1.52417,1.04344,12.2756
1.30108,1.0497,12.527
1.22524,1.00688,12.5166
1.27342,1.00771,12.5885
1.34513,1.04578,12.6037
1.47113,0.98845,12.2061
1.39239,1.00246,12.2143
1.31077,1.11236,12.1108
1.39952,1.20346,11.9545
1.34988,1.19374,12.0019
1.72184,1.59352,12.0149
1.8149,1.61856,12.1624
1.79366,1.65275,11.9793
1.66435,1.48045,12.212
1.71669,1.44961,12.5111
1.74922,1.51055,12.3444
1.42189,1.35433,12.0777
1.55229,1.43054,12.1533
1.63835,1.53501,12.0735
1.64311,1.5909,11.8562
1.57939,1.55813,11.9395
1.51757,1.28184,11.6309
1.47906,1.33259,11.6398
1.51741,1.36187,11.6388
1.40316,1.43257,11.879
1.39785,1.37575,11.7645
1.37363,1.30392,11.8296
1.37155,1.3608,11.9413
1.54783,1.37831,11.6676
1.54034,1.30897,11.6456
1.54477,1.45138,11.6537
1.60903,1.54703,11.6738
1.60178,1.53285,11.6294
1.31258,1.0912,11.7356
1.27725,1.17574,11.7735
1.53563,1.33317,11.695
1.55989,1.29893,11.6612
1.53205,1.4412,11.67
1.4516,1.28791,11.6916
1.48856,1.23243,11.6933
1.4643,1.21774,11.625
1.38891,1.14218,11.6383
1.41438,1.14928,11.6932
1.37421,1.54212,11.0745
1.3897,1.55969,11.2067
1.52242,1.61862,11.1287
1.49492,1.58843,10.9996
1.54308,1.61313,11.2524
1.63241,1.63627,11.2236
1.63821,1.64447,11.1035
1.75413,1.53068,10.8546
1.68358,1.35556,10.766
1.59111,1.49701,10.8257
1.75019,1.29093,10.7768
1.68754,1.10975,10.8526
1.14819,1.38386,11.5912
1.30136,1.41834,11.7028
1.45757,1.47155,11.6754
1.55965,1.53769,11.6097
1.49981,1.56591,11.5691
1.59087,1.59855,11.4628
1.508,1.59235,11.3779
1.62581,1.57688,11.5597
1.71248,1.5942,11.5757
1.69207,1.60999,11.4074
1.69381,1.60314,11.7702
1.78459,1.64027,11.8353
1.24317,1.45853,11.2942
1.42139,1.56814,11.3082
1.65154,1.60618,10.9526
1.42001,1.50339,10.9216
1.60734,1.62109,11.2987
1.65673,1.06537,11.8699
1.6325,1.06992,11.8419
1.67208,1.04351,11.8499
1.69382,1.0476,11.882
1.67713,1.04462,11.757
1.70637,1.04993,11.8083
1.6652,1.06789,11.7951
1.68348,1.05289,11.7579
1.66723,1.06221,11.7623
1.67239,1.06655,11.7723
1.44474,1.16283,11.7826
1.75564,1.27716,11.8618
1.71036,1.28138,11.8341
1.71118,1.26697,11.841
1.73988,1.25526,11.8668
1.70505,1.22623,11.8121
1.66239,1.27962,11.8219
1.76902,1.19786,11.8677
1.69337,1.23416,11.7632
1.58728,1.24989,11.7732
